715.966949462891 697.194458007812 670.065490722656 627.635314941406 604.104919433594 578.539306640625 554.602508544922 532.945373535156 493.528350830078 496.880950927734 544.150451660156 571.760314941406 602.996063232422 636.367492675781 657.3173828125 702.406066894531 706.561004638672 698.681762695312 706.102233886719 681.708892822266 673.265747070312 702.347961425781 725.172729492188 694.018005371094 681.401275634766 671.864562988281 650.851501464844 625.038269042969 592.505432128906 576.524261474609 572.394073486328 549.662048339844 483.584487915039 456.015930175781 473.829986572266 482.310470581055 467.973037719727 453.479019165039 445.138519287109 434.404998779297 434.115264892578 435.196838378906 436.319000244141 437.255218505859 439.130432128906 443.199401855469 443.934143066406 448.430465698242 456.03889465332 481.295074462891 501.612335205078 514.258422851562 529.519348144531 538.745239257812 534.579162597656 527.325866699219 534.726257324219 543.297607421875 558.097564697266 587.497528076172 623.724365234375 637.790557861328 639.316925048828 656.580322265625 666.679565429688 668.008728027344 672.930358886719 675.745727539062 681.874084472656 675.559997558594 658.758850097656 646.812561035156 635.128479003906 601.293823242188 592.296539306641 590.926391601562 613.634429931641 609.031280517578 613.300720214844 617.427429199219 598.893188476562 576.216705322266 561.216094970703 537.94140625 513.848083496094 470.625534057617 437.799057006836 427.922149658203 435.616989135742 412.394134521484 396.906799316406 372.594131469727 325.956115722656 282.456024169922 246.581916809082 211.683013916016 193.972229003906 192.894149780273 203.198837280273 225.589263916016 253.594223022461 268.525451660156 242.536117553711 230.49161529541 219.401519775391 194.398315429688 182.957489013672 164.884201049805 162.069961547852 163.825668334961 164.412567138672 166.575622558594 178.700553894043 189.344612121582 187.893287658691 192.38671875 197.094245910645 219.810516357422 234.056610107422 250.245346069336 264.707489013672 287.414535522461 297.046981811523 307.103286743164 335.480377197266 371.453094482422 379.33186340332 378.646575927734 402.168075561523 435.724502563477 460.023849487305 476.505401611328 492.573638916016 499.727462768555 499.599090576172 499.664733886719 498.973236083984 477.627258300781 449.602096557617 410.741104125977 409.729095458984 444.920043945312 445.404754638672 492.495697021484 537.064880371094 555.326599121094 560.600036621094 587.852844238281 652.75146484375 690.863586425781 718.128570556641 746.962707519531 762.549560546875 773.349487304688 785.611877441406 796.452331542969 808.171478271484 829.368530273438 866.998107910156 901.043182373047 870.792327880859 825.216705322266 782.631042480469 798.181213378906 839.317901611328 862.729675292969 883.246459960938 879.104217529297 882.915222167969 898.235534667969 927.351684570312 946.000244140625 960.024169921875 955.802062988281 957.794677734375 955.290893554688
729.732360839844 699.306213378906 666.924774169922 657.735473632812 643.328430175781 618.897338867188 581.931427001953 543.057739257812 511.466247558594 515.340637207031 569.9189453125 592.128631591797 617.933776855469 656.06689453125 670.545837402344 703.046051025391 701.239440917969 669.476257324219 666.718200683594 659.566467285156 696.216430664062 685.008972167969 699.882110595703 676.885864257812 655.4775390625 639.607238769531 620.934997558594 598.24560546875 578.189178466797 568.491821289062 561.588775634766 536.104553222656 495.804168701172 493.556488037109 512.377868652344 525.017150878906 506.258224487305 485.863967895508 461.919677734375 456.295913696289 468.856506347656 443.940856933594 437.693908691406 438.498916625977 438.747772216797 439.870849609375 442.265762329102 444.36589050293 448.352340698242 459.00537109375 469.979644775391 487.729736328125 515.420959472656 554.569152832031 556.049560546875 560.960876464844 572.476379394531 582.869232177734 578.653106689453 611.532897949219 660.397094726562 649.71337890625 641.674743652344 656.121124267578 656.601013183594 661.578918457031 665.656433105469 658.489868164062 652.5126953125 655.054504394531 631.492370605469 632.596923828125 621.440887451172 609.325653076172 617.703735351562 627.137847900391 616.159973144531 632.515441894531 624.854675292969 614.288757324219 599.249389648438 582.777679443359 564.58837890625 558.408142089844 540.309661865234 493.151092529297 471.169006347656 462.907424926758 465.600555419922 451.477630615234 428.697647094727 388.741271972656 334.883834838867 302.287643432617 271.927917480469 229.455795288086 197.270797729492 191.552612304688 194.59147644043 211.954658508301 243.709869384766 261.155838012695 262.500946044922 270.563446044922 231.912147521973 203.689956665039 202.814956665039 182.167083740234 164.533851623535 161.000015258789 163.732727050781 164.326446533203 176.531433105469 179.36890411377 205.833236694336 211.310333251953 213.083908081055 209.494651794434 221.026107788086 240.258033752441 257.522094726562 275.254272460938 299.850357055664 303.108474731445 315.998641967773 356.137649536133 369.620574951172 368.107482910156 394.600158691406 425.795623779297 459.53955078125 466.121734619141 488.121826171875 502.860687255859 507.525146484375 522.296142578125 513.146545410156 516.361602783203 490.939193725586 462.271743774414 430.276885986328 412.681976318359 430.345123291016 438.262176513672 464.068862915039 518.785125732422 532.261260986328 592.416595458984 643.931274414062 695.983245849609 718.24755859375 731.735900878906 767.720397949219 780.653594970703 781.608795166016 784.523651123047 797.997375488281 817.816223144531 842.173492431641 850.591857910156 819.260101318359 784.477264404297 769.750457763672 823.474853515625 858.639221191406 875.564208984375 868.295135498047 875.890563964844 895.976898193359 913.420959472656 930.244201660156 946.952819824219 939.917907714844 937.115783691406 943.785797119141 955.867919921875
740.133483886719 696.579284667969 704.281311035156 691.334259033203 670.270385742188 630.528137207031 592.223083496094 566.710571289062 542.949951171875 525.835205078125 557.132019042969 613.359375 642.761779785156 660.924530029297 691.745788574219 709.105102539062 685.414672851562 660.034912109375 636.395202636719 673.363464355469 683.486999511719 660.765533447266 678.274810791016 673.431091308594 641.896423339844 622.127288818359 593.399780273438 575.589874267578 564.167449951172 551.214111328125 548.20458984375 503.318542480469 522.859802246094 521.653442382812 547.366973876953 556.71484375 527.43701171875 503.245391845703 485.517379760742 478.862182617188 491.986190795898 468.489898681641 440.927185058594 440.544219970703 441.147064208984 464.564208984375 470.286972045898 449.013046264648 448.356079101562 450.539047241211 455.550674438477 477.409561157227 508.466491699219 526.3916015625 543.553985595703 569.268127441406 597.260589599609 612.084777832031 612.97607421875 629.451477050781 672.334381103516 644.711547851562 619.145385742188 623.136657714844 619.0888671875 638.561767578125 634.629211425781 619.340576171875 613.290100097656 623.678771972656 606.545959472656 596.536437988281 618.157562255859 625.438568115234 626.556304931641 635.571655273438 627.444763183594 627.067504882812 586.32568359375 565.080535888672 560.775390625 540.856506347656 520.853820800781 521.980072021484 528.247772216797 512.682647705078 492.083465576172 478.659515380859 470.65625 457.41618347168 415.537689208984 378.477294921875 333.765655517578 302.905410766602 266.721954345703 229.394485473633 202.143203735352 192.06135559082 189.591026306152 198.856475830078 214.163795471191 239.14981842041 260.982604980469 256.77799987793 244.935363769531 229.595947265625 205.616134643555 188.510986328125 182.525764465332 182.725280761719 164.900100708008 163.366744995117 169.925682067871 176.762481689453 191.27619934082 199.635665893555 225.279319763184 227.177780151367 224.017555236816 240.807746887207 254.219009399414 268.738494873047 297.732788085938 310.053909301758 311.480895996094 338.131805419922 347.724014282227 351.398254394531 376.382751464844 410.128265380859 432.528762817383 447.573364257812 463.646240234375 493.135345458984 512.93896484375 521.654968261719 529.359710693359 532.353454589844 533.551879882812 501.522979736328 470.438232421875 460.451507568359 477.747741699219 468.994033813477 444.255065917969 471.960830688477 515.188293457031 580.602905273438 631.847717285156 674.652465820312 710.783752441406 722.391021728516 740.168273925781 761.670593261719 782.444885253906 794.826049804688 804.855224609375 807.96923828125 812.554626464844 794.440093994141 772.343139648438 750.091796875 781.722900390625 833.991790771484 867.892242431641 866.758728027344 854.201171875 865.426696777344 882.932312011719 901.208648681641 924.076110839844 916.711883544922 916.233520507812 932.977416992188 944.986633300781 934.016418457031
724.897155761719 718.582000732422 734.95361328125 718.808837890625 679.646301269531 646.113006591797 626.359802246094 603.939819335938 566.265686035156 530.292816162109 545.621704101562 598.108703613281 634.798126220703 643.441223144531 669.110870361328 685.540405273438 667.764099121094 642.86865234375 626.620513916016 634.205444335938 633.988403320312 653.735473632812 673.979858398438 648.168090820312 621.429138183594 604.774261474609 581.863220214844 561.736297607422 556.886596679688 542.0673828125 527.983154296875 503.806457519531 536.182189941406 539.303161621094 552.518249511719 585.840576171875 563.351928710938 544.305480957031 516.811737060547 506.611572265625 487.630355834961 470.881195068359 454.553802490234 443.006561279297 443.903076171875 462.613677978516 479.367523193359 469.220550537109 456.016998291016 453.762756347656 474.433898925781 511.235961914062 531.511535644531 529.801483154297 548.702575683594 584.808013916016 624.591003417969 613.793640136719 625.600799560547 650.835235595703 662.078369140625 625.389862060547 605.367828369141 592.679321289062 592.500244140625 605.11279296875 593.806030273438 587.9462890625 574.406188964844 584.557189941406 570.295318603516 564.892700195312 583.919586181641 593.598571777344 586.876708984375 586.625610351562 606.691101074219 601.745422363281 563.104187011719 530.724670410156 514.460266113281 497.30078125 493.347229003906 473.390411376953 482.251800537109 475.480712890625 472.47119140625 450.734527587891 432.078979492188 429.83251953125 407.174026489258 360.516616821289 324.373428344727 299.766662597656 286.861267089844 259.545959472656 216.134826660156 192.598045349121 188.235824584961 189.368659973145 197.804458618164 216.322845458984 240.530830383301 250.052917480469 243.681823730469 225.72371673584 208.905494689941 190.405624389648 185.975173950195 190.544532775879 180.858360290527 164.31755065918 162.46573638916 177.650238037109 189.033302307129 197.395553588867 210.461990356445 233.68733215332 232.661117553711 239.028297424316 250.439888000488 271.168609619141 292.197052001953 310.225357055664 315.767990112305 319.374114990234 335.207397460938 351.529907226562 371.712432861328 390.627258300781 411.583465576172 426.501403808594 443.615539550781 471.422592163086 501.388214111328 515.084350585938 538.200012207031 555.253295898438 551.617065429688 539.993225097656 520.972320556641 525.970764160156 542.413604736328 510.259506225586 486.768768310547 464.236206054688 485.29655456543 537.271850585938 578.810729980469 622.813720703125 674.654846191406 697.737182617188 725.232116699219 760.751770019531 778.770324707031 790.864074707031 783.488372802734 776.908416748047 764.829162597656 759.426025390625 737.004699707031 768.768981933594 813.552612304688 854.080993652344 861.876739501953 843.329040527344 867.949279785156 890.371948242188 896.09912109375 901.735534667969 895.820495605469 885.817260742188 905.060791015625 905.474853515625 902.756774902344 910.924560546875
755.084106445312 764.627502441406 768.654602050781 738.553314208984 706.998229980469 681.745727539062 649.094055175781 612.566040039062 575.630950927734 556.852966308594 542.914672851562 583.619384765625 610.489959716797 602.012634277344 633.396789550781 653.504638671875 648.320648193359 627.046997070312 605.204467773438 629.626953125 648.486267089844 667.006134033203 698.110290527344 639.954010009766 611.841613769531 593.684509277344 573.186370849609 552.779174804688 540.8486328125 529.3056640625 507.009368896484 510.487930297852 552.520690917969 565.163665771484 568.416564941406 596.961730957031 587.24609375 558.566772460938 536.223297119141 508.366882324219 490.739654541016 475.649337768555 463.997924804688 453.963500976562 447.634307861328 457.634826660156 481.184631347656 488.934539794922 478.811141967773 463.059387207031 481.880554199219 518.725463867188 562.407470703125 570.266906738281 588.616027832031 609.2119140625 609.315551757812 582.486999511719 603.771331787109 645.186889648438 646.130432128906 626.653381347656 605.14794921875 580.106811523438 575.757995605469 579.187957763672 562.103698730469 560.429260253906 541.307312011719 546.097229003906 533.623687744141 544.294860839844 552.739562988281 561.631042480469 545.441040039062 542.696594238281 585.766296386719 581.676086425781 558.882507324219 515.704040527344 481.341888427734 455.604919433594 461.976272583008 441.631729125977 451.618667602539 431.040161132812 434.899337768555 423.720428466797 405.004516601562 399.834136962891 389.111175537109 370.644134521484 345.268173217773 328.802093505859 310.441345214844 269.565887451172 225.669441223145 193.725799560547 188.695373535156 186.234069824219 188.695495605469 196.128639221191 208.496032714844 228.209121704102 226.484657287598 207.136329650879 195.876930236816 187.522720336914 184.54239654541 185.038467407227 178.909591674805 167.875587463379 161.235794067383 164.738296508789 183.372665405273 193.990936279297 210.834854125977 227.483215332031 242.853507995605 234.767921447754 238.080169677734 256.851715087891 278.117004394531 301.334686279297 310.431701660156 315.568298339844 326.906402587891 350.223876953125 379.823791503906 388.365142822266 400.399780273438 417.474090576172 434.326843261719 461.750122070312 492.814575195312 512.958038330078 525.362182617188 541.235870361328 563.650756835938 573.122406005859 579.062744140625 588.612640380859 578.2548828125 532.235931396484 519.03076171875 497.082641601562 477.848510742188 519.019287109375 568.820007324219 636.827728271484 699.794799804688 711.758361816406 713.626312255859 740.644714355469 763.57958984375 764.149688720703 741.777954101562 744.256713867188 740.814453125 723.912719726562 748.547027587891 789.636108398438 807.074096679688 828.535949707031 825.883483886719 841.130004882812 869.646667480469 860.637054443359 854.303894042969 858.089538574219 864.393768310547 869.576812744141 883.268341064453 893.955810546875 910.641967773438 935.428649902344
799.569122314453 795.421173095703 794.643981933594 754.766571044922 727.214233398438 695.851715087891 652.484497070312 625.292144775391 592.370452880859 561.102661132812 539.786254882812 560.411407470703 578.866821289062 570.574279785156 589.929809570312 617.879608154297 625.3857421875 601.342224121094 597.582427978516 624.895385742188 645.346130371094 685.364562988281 714.484558105469 667.786254882812 629.8046875 602.057495117188 579.393463134766 558.803771972656 539.610290527344 527.149719238281 535.959899902344 525.104858398438 552.044006347656 596.1591796875 602.837463378906 600.901763916016 582.717926025391 562.682647705078 546.919769287109 520.352966308594 488.945861816406 485.27490234375 480.646957397461 472.725067138672 460.383483886719 466.84733581543 501.182312011719 517.281311035156 502.470947265625 490.293243408203 493.994033813477 516.796081542969 552.971069335938 597.258850097656 614.243835449219 604.789947509766 582.945129394531 567.9931640625 594.7978515625 618.918334960938 629.898559570312 643.913513183594 627.66943359375 583.962524414062 555.140411376953 539.691162109375 527.376098632812 523.163391113281 509.650924682617 498.790664672852 498.49333190918 517.829162597656 517.853454589844 519.310729980469 503.519134521484 520.726806640625 556.086273193359 544.828125 545.070983886719 504.371520996094 477.514465332031 433.608184814453 421.790679931641 406.762008666992 412.183807373047 399.533416748047 406.859832763672 391.165740966797 372.042953491211 365.478179931641 355.268005371094 352.187606811523 353.689514160156 327.538452148438 297.104614257812 264.930603027344 225.684158325195 196.694610595703 189.369178771973 185.420043945312 184.54759979248 188.490798950195 188.96484375 194.279479980469 200.74437713623 193.672805786133 188.425323486328 186.218765258789 187.66178894043 186.673294067383 196.272727966309 172.395431518555 172.126251220703 160.475440979004 175.559906005859 196.640686035156 194.994659423828 202.585144042969 226.304672241211 220.084747314453 232.88427734375 253.899154663086 271.836761474609 282.953277587891 288.066772460938 307.465667724609 311.668304443359 327.230316162109 355.728729248047 371.635757446289 382.122497558594 404.582931518555 432.200073242188 455.886199951172 475.09814453125 503.061553955078 518.743865966797 529.313049316406 551.087310791016 585.986907958984 598.744293212891 603.716186523438 597.888763427734 563.004516601562 529.514343261719 506.291366577148 485.631866455078 551.002380371094 611.104766845703 676.167022705078 719.602111816406 732.773620605469 724.838684082031 735.8623046875 758.616882324219 743.334381103516 719.630981445312 714.8125 714.288818359375 717.8447265625 742.315979003906 760.007080078125 774.756774902344 793.081909179688 815.784332275391 846.699096679688 834.849090576172 847.08984375 871.317138671875 885.086120605469 898.8466796875 903.071136474609 920.810729980469 942.379089355469 959.523284912109 971.592163085938
841.75390625 827.084106445312 799.412353515625 765.408508300781 740.592864990234 714.084533691406 678.806335449219 639.019897460938 604.561920166016 561.757507324219 560.193115234375 546.044311523438 551.3515625 556.643798828125 562.658325195312 577.555358886719 588.066345214844 582.095001220703 601.318908691406 619.867340087891 637.230651855469 671.860900878906 717.403503417969 681.364715576172 630.10205078125 613.024261474609 583.447052001953 574.299896240234 540.628479003906 554.16259765625 567.664489746094 546.770172119141 555.151031494141 585.66259765625 634.215545654297 627.471557617188 597.871276855469 582.123077392578 551.100708007812 514.382507324219 497.420715332031 501.739486694336 496.067733764648 482.18766784668 476.202545166016 471.845550537109 487.500457763672 525.881103515625 530.790954589844 531.738006591797 521.923095703125 536.81494140625 559.035949707031 604.607269287109 632.348266601562 603.475402832031 562.175933837891 554.376800537109 568.095947265625 580.457763671875 606.819641113281 630.346069335938 638.812469482422 600.162292480469 576.005737304688 543.697509765625 513.006286621094 501.565490722656 501.750305175781 478.413619995117 465.862274169922 470.619262695312 481.554962158203 487.606323242188 477.373107910156 507.889038085938 523.018798828125 513.408660888672 513.861267089844 478.160400390625 447.274383544922 427.615921020508 395.946258544922 367.86572265625 367.37385559082 360.715408325195 358.222534179688 364.220336914062 343.597351074219 328.873870849609 331.183029174805 321.916763305664 331.89567565918 331.740692138672 297.655700683594 264.864776611328 232.608261108398 217.472267150879 206.814010620117 185.736862182617 183.411254882812 182.909454345703 188.212814331055 185.98420715332 186.220771789551 185.714553833008 186.533912658691 189.576461791992 192.008804321289 195.189193725586 196.263977050781 172.909072875977 171.944412231445 161.289596557617 167.118995666504 184.58065032959 207.653915405273 215.563163757324 224.686447143555 208.573089599609 225.810188293457 249.630996704102 263.497634887695 265.423110961914 275.601028442383 290.532897949219 305.421112060547 321.593231201172 330.049041748047 349.575119018555 369.376861572266 396.053115844727 425.48828125 447.486328125 464.271484375 486.23974609375 514.840026855469 520.860412597656 534.683837890625 549.910430908203 574.683654785156 588.12890625 579.061889648438 559.733459472656 528.196166992188 508.654541015625 493.189758300781 561.899291992188 632.993682861328 702.992309570312 733.400573730469 744.241302490234 753.948364257812 750.659118652344 760.402191162109 741.702514648438 718.867980957031 696.236236572266 719.50341796875 744.87939453125 743.812438964844 770.383880615234 803.783081054688 819.714660644531 834.15576171875 824.2587890625 845.772125244141 882.736846923828 902.989501953125 927.284240722656 932.418365478516 936.908081054688 946.637145996094 965.724731445312 981.36181640625 1002.95562744141
842.150604248047 815.671081542969 787.782287597656 766.397521972656 734.90673828125 700.198181152344 667.878631591797 617.123840332031 591.009857177734 595.969940185547 589.625366210938 569.277282714844 566.910095214844 568.283538818359 588.753875732422 601.090087890625 585.634521484375 585.207122802734 594.659606933594 612.317504882812 637.985290527344 669.285736083984 712.834899902344 680.992553710938 626.080505371094 611.042022705078 576.310668945312 555.112426757812 552.612182617188 559.2421875 585.872619628906 563.525177001953 586.329467773438 608.643646240234 649.990539550781 663.48876953125 616.531921386719 578.037200927734 542.643646240234 527.861572265625 513.302673339844 515.222045898438 500.560836791992 488.676208496094 498.178619384766 491.397384643555 493.592971801758 520.975891113281 543.853424072266 559.163146972656 550.047607421875 581.744262695312 591.452880859375 611.267242431641 613.675964355469 579.861755371094 550.602722167969 529.480102539062 540.918884277344 559.949645996094 573.132751464844 596.627746582031 609.586608886719 617.412414550781 591.550720214844 554.636474609375 522.568389892578 493.632995605469 477.759231567383 481.454864501953 448.710510253906 443.702392578125 439.834045410156 451.200546264648 455.834945678711 487.696014404297 488.085494995117 494.172210693359 485.861328125 439.763870239258 419.606887817383 402.16731262207 384.651885986328 368.024322509766 342.168212890625 321.111633300781 320.926864624023 332.634582519531 319.230728149414 290.891845703125 288.086944580078 278.79866027832 294.782684326172 305.046417236328 285.794128417969 260.307769775391 237.770072937012 210.8271484375 191.900726318359 184.369552612305 182.283905029297 181.824546813965 185.903846740723 182.99919128418 182.761505126953 186.643981933594 207.592155456543 201.492729187012 200.585571289062 210.970306396484 200.322479248047 185.001579284668 170.460388183594 165.117607116699 163.246246337891 183.770660400391 206.020233154297 235.672348022461 224.636459350586 202.839996337891 221.810165405273 241.943420410156 251.379333496094 257.079040527344 270.187637329102 281.550537109375 309.065765380859 316.177917480469 315.546890258789 337.809066772461 360.319564819336 389.419128417969 411.362243652344 439.490386962891 445.623825073242 444.101989746094 473.535446166992 508.621520996094 523.332641601562 536.230895996094 559.277130126953 572.372314453125 570.413787841797 555.463500976562 534.758728027344 510.876525878906 505.905319213867 581.150634765625 646.08837890625 698.148132324219 737.856018066406 757.715515136719 769.623443603516 772.432861328125 768.863952636719 750.751281738281 718.210327148438 695.640319824219 719.337158203125 725.114440917969 735.552612304688 760.94140625 786.037689208984 803.368347167969 810.825073242188 820.353637695312 868.685424804688 906.947326660156 936.236999511719 962.448791503906 968.864074707031 966.775756835938 970.678894042969 987.185241699219 996.339752197266 1001.51385498047
844.963012695312 822.171508789062 768.976745605469 732.823791503906 700.846557617188 668.322998046875 639.307861328125 615.740417480469 633.730285644531 631.101196289062 621.918823242188 594.877075195312 611.748291015625 587.289245605469 604.3525390625 634.098327636719 623.739440917969 610.077728271484 600.063079833984 629.192077636719 648.808715820312 663.083221435547 700.703369140625 664.096069335938 632.055053710938 589.947174072266 574.664367675781 567.534332275391 580.594970703125 560.100036621094 581.856628417969 588.141906738281 595.343109130859 635.944519042969 670.191009521484 652.419616699219 617.835021972656 598.574401855469 590.464202880859 559.260314941406 536.464477539062 526.698547363281 513.804382324219 488.676208496094 512.798309326172 511.604034423828 516.069458007812 522.472015380859 530.011169433594 555.202087402344 584.585266113281 612.168243408203 634.819427490234 627.18994140625 607.001800537109 579.702758789062 563.287963867188 543.997741699219 522.356567382812 538.386901855469 550.8525390625 573.522521972656 571.622985839844 592.175476074219 566.036376953125 517.728912353516 489.844665527344 474.225982666016 442.131164550781 453.467315673828 440.041381835938 422.535797119141 416.213806152344 407.323501586914 424.897857666016 450.239715576172 452.775390625 457.784240722656 464.311981201172 433.332366943359 412.738662719727 394.402008056641 376.763061523438 360.555603027344 340.757019042969 311.531539916992 289.29216003418 296.942428588867 287.225982666016 278.437240600586 251.056015014648 250.481079101562 251.608032226562 273.7880859375 275.619003295898 262.946762084961 241.998970031738 221.587158203125 189.059234619141 182.3212890625 181.15315246582 180.565673828125 180.692825317383 180.36856842041 181.176193237305 192.242660522461 219.354843139648 226.41658782959 222.259750366211 223.047180175781 203.751831054688 188.365249633789 172.479553222656 166.829811096191 160.335021972656 168.776153564453 201.555969238281 232.709823608398 220.487533569336 197.74333190918 225.519508361816 228.342330932617 229.229133605957 246.988739013672 268.099975585938 280.004180908203 308.316436767578 311.401718139648 319.196472167969 340.413818359375 358.028625488281 372.215148925781 402.743377685547 417.95491027832 419.517272949219 424.565887451172 448.141754150391 481.453735351562 504.933410644531 525.272888183594 551.249938964844 575.381469726562 570.939758300781 568.738891601562 541.683898925781 508.455261230469 546.499572753906 612.691284179688 676.859375 723.774200439453 746.928955078125 762.52880859375 775.191772460938 779.649291992188 761.388061523438 733.919525146484 708.225646972656 685.469635009766 705.15478515625 723.428283691406 752.42236328125 781.235900878906 796.547973632812 818.106079101562 838.469665527344 840.113586425781 852.012878417969 881.741821289062 913.294311523438 949.943359375 962.4951171875 960.122802734375 970.283142089844 989.412567138672 994.277679443359 978.5849609375
856.264038085938 817.657836914062 785.045471191406 749.353668212891 703.604431152344 667.949676513672 645.7431640625 654.881072998047 674.545715332031 667.146057128906 656.979248046875 635.243011474609 630.28955078125 606.324523925781 609.929382324219 635.1533203125 659.484008789062 639.875427246094 611.487182617188 627.391174316406 655.250701904297 682.353057861328 713.517181396484 656.756439208984 621.393920898438 597.316741943359 588.066528320312 573.924072265625 585.104614257812 575.077941894531 586.901794433594 615.686798095703 620.930236816406 649.057952880859 691.369659423828 681.800750732422 653.898834228516 657.719909667969 629.270324707031 567.18017578125 548.735900878906 543.02197265625 531.220581054688 490.226196289062 515.610656738281 537.780792236328 541.516082763672 551.16845703125 567.552032470703 566.466613769531 588.688995361328 627.730651855469 663.498657226562 662.177581787109 626.630096435547 596.934814453125 571.625091552734 545.873474121094 516.933410644531 511.544769287109 536.187561035156 540.596832275391 553.568542480469 580.012390136719 551.001617431641 511.234191894531 467.93701171875 445.458068847656 412.868438720703 417.443161010742 416.051116943359 394.507537841797 382.853286743164 382.396545410156 417.880630493164 422.98307800293 420.260131835938 420.855728149414 442.138290405273 443.40266418457 422.810821533203 413.988494873047 395.081420898438 379.837982177734 353.489227294922 315.900161743164 275.258819580078 257.395141601562 249.922035217285 253.301651000977 239.081115722656 230.173889160156 223.116958618164 239.215637207031 226.482757568359 229.883972167969 225.014801025391 201.574699401855 182.453002929688 180.470428466797 180.299621582031 179.68091583252 179.395195007324 179.321914672852 179.61255645752 186.966728210449 207.135437011719 228.128112792969 239.043174743652 219.952491760254 206.583190917969 196.42366027832 187.533309936523 174.130401611328 159.776176452637 162.963241577148 187.349365234375 211.274627685547 206.214416503906 189.172927856445 217.285064697266 209.98876953125 214.7216796875 230.506011962891 251.708755493164 274.322692871094 295.970901489258 314.822998046875 321.686599731445 327.354766845703 343.982437133789 358.141052246094 372.138198852539 396.709808349609 406.386367797852 412.164916992188 426.610260009766 447.619537353516 484.076477050781 525.976318359375 541.604888916016 558.562438964844 565.58984375 566.386779785156 525.176666259766 544.259582519531 583.119476318359 645.23876953125 692.8486328125 719.917602539062 739.921020507812 751.727996826172 764.256164550781 764.193450927734 752.446319580078 722.613342285156 696.822692871094 677.020324707031 709.297546386719 734.982238769531 762.294006347656 783.749877929688 806.787475585938 832.80224609375 857.028533935547 874.346923828125 887.332489013672 899.9384765625 922.411743164062 946.81640625 966.679565429688 978.931274414062 984.587615966797 989.881713867188 982.171478271484 962.503784179688
855.1474609375 823.931579589844 787.125762939453 746.164367675781 723.993347167969 710.080352783203 702.094482421875 702.80859375 702.542907714844 691.42529296875 684.779418945312 679.428131103516 645.023986816406 630.026885986328 606.372802734375 625.914031982422 665.895568847656 660.859100341797 642.927856445312 638.006225585938 659.419006347656 686.896942138672 725.201049804688 685.123779296875 657.199554443359 620.836364746094 612.819641113281 589.367431640625 609.8115234375 604.818420410156 593.926452636719 606.903991699219 622.253753662109 643.760192871094 681.207916259766 715.563293457031 702.014282226562 679.960479736328 633.9072265625 567.030609130859 556.995422363281 565.737945556641 545.409240722656 497.524612426758 525.022369384766 554.648315429688 572.108215332031 577.022491455078 603.872497558594 614.585815429688 616.141510009766 643.180816650391 678.207427978516 682.539428710938 647.571197509766 623.414245605469 591.495788574219 574.68896484375 538.644775390625 503.131744384766 507.079193115234 523.873474121094 561.34375 583.28955078125 549.286285400391 505.453353881836 461.985015869141 423.113952636719 393.385284423828 384.024047851562 392.501693725586 369.742919921875 352.032745361328 374.218566894531 410.781967163086 394.523498535156 386.359161376953 384.017517089844 412.790740966797 444.408081054688 442.112213134766 433.178497314453 420.817779541016 408.584014892578 396.868865966797 358.169616699219 310.343704223633 276.731750488281 243.877662658691 227.791961669922 227.005599975586 218.992111206055 204.291213989258 202.808013916016 197.68327331543 196.566253662109 197.128440856934 183.700942993164 179.182090759277 179.456771850586 179.266204833984 178.862197875977 178.39338684082 178.328598022461 178.131591796875 180.898750305176 191.198791503906 213.687004089355 235.419715881348 228.453994750977 216.996109008789 215.518249511719 218.086555480957 199.240196228027 175.021240234375 160.695022583008 165.139404296875 182.479476928711 181.349426269531 197.697929382324 220.32544708252 193.183181762695 202.566040039062 221.591842651367 243.230361938477 264.584274291992 281.988082885742 292.7861328125 306.366607666016 316.604446411133 336.307769775391 351.725204467773 364.863891601562 381.444564819336 393.402130126953 396.740875244141 412.64436340332 434.239410400391 465.781066894531 514.375122070312 534.898132324219 546.119750976562 553.832641601562 550.57763671875 525.015350341797 583.215087890625 623.976684570312 650.822692871094 676.285583496094 706.236175537109 724.992767333984 730.391906738281 734.935363769531 737.429779052734 742.470153808594 722.279998779297 686.3134765625 666.731597900391 728.399963378906 754.954956054688 752.151428222656 747.081237792969 767.658813476562 809.100677490234 840.833251953125 869.5419921875 899.536499023438 922.549438476562 943.194763183594 965.130218505859 973.177795410156 984.508972167969 983.582092285156 992.773315429688 964.177825927734 943.286499023438
851.105346679688 826.068176269531 797.023284912109 773.941162109375 764.063842773438 744.377990722656 443.492477416992 443.492477416992 443.492477416992 443.492477416992 696.101684570312 692.984558105469 661.656616210938 644.662658691406 615.701293945312 636.18701171875 660.699890136719 681.798217773438 668.254364013672 652.66357421875 663.812194824219 679.193969726562 733.673065185547 717.724304199219 673.286865234375 642.559692382812 637.308898925781 616.228546142578 647.882293701172 668.340209960938 643.501983642578 608.789489746094 619.735046386719 632.197845458984 657.681701660156 703.136047363281 732.129364013672 678.282592773438 638.874084472656 586.570281982422 579.751037597656 600.697448730469 566.324005126953 516.878295898438 512.470275878906 552.913513183594 578.473297119141 598.619812011719 620.899230957031 644.124969482422 645.395721435547 657.012573242188 679.610290527344 656.299133300781 620.048034667969 596.682739257812 565.570190429688 546.463195800781 531.873474121094 501.022384643555 487.007263183594 525.639404296875 561.195709228516 557.197967529297 525.672302246094 497.64013671875 464.446685791016 432.452239990234 387.234588623047 352.050842285156 356.511184692383 352.861389160156 327.020599365234 365.38639831543 407.521026611328 391.360260009766 352.387435913086 364.75602722168 389.144409179688 428.103851318359 464.044189453125 460.926666259766 443.659851074219 440.101013183594 421.507598876953 372.434982299805 318.274765014648 280.639404296875 255.87548828125 214.196769714355 198.235717773438 196.427230834961 199.303207397461 192.175628662109 188.954574584961 185.887046813965 182.027160644531 179.667823791504 178.936508178711 178.472427368164 178.164558410645 177.747024536133 177.396934509277 177.392768859863 176.97811126709 177.988540649414 185.282585144043 208.507186889648 231.765838623047 234.897125244141 236.71533203125 247.716728210449 233.820411682129 215.800964355469 194.87141418457 165.54377746582 161.372482299805 165.180992126465 178.231399536133 194.53101348877 206.242431640625 197.430313110352 184.607528686523 201.652961730957 216.63996887207 238.942947387695 256.879272460938 284.123626708984 306.707931518555 308.506286621094 334.104614257812 342.540893554688 355.712554931641 362.396957397461 371.934204101562 382.854400634766 398.327651977539 428.654754638672 454.58073425293 493.585845947266 523.116638183594 542.462158203125 548.383056640625 544.739990234375 535.500549316406 588.97509765625 621.467498779297 637.153747558594 663.250762939453 683.889312744141 704.033325195312 713.63623046875 701.367004394531 693.037963867188 690.602447509766 701.870300292969 649.685607910156 645.809387207031 703.530090332031 737.262268066406 734.485595703125 736.095764160156 741.976104736328 778.956481933594 818.89599609375 841.952575683594 873.660522460938 898.259765625 918.672485351562 945.783233642578 967.241149902344 975.091918945312 949.936248779297 957.891174316406 937.992553710938 950.071197509766
863.851837158203 443.492477416992 443.492477416992 443.492477416992 443.492477416992 443.492477416992 443.492477416992 443.492477416992 443.492477416992 443.492477416992 443.492477416992 443.492477416992 443.492477416992 655.650817871094 632.715148925781 634.944641113281 667.039916992188 682.181518554688 692.701354980469 677.19189453125 674.250854492188 443.492477416992 443.492477416992 443.492477416992 680.363159179688 671.531982421875 670.553466796875 663.155334472656 685.095458984375 703.950225830078 655.539886474609 622.346557617188 650.178863525391 668.122314453125 673.826049804688 704.982299804688 711.009338378906 666.97119140625 636.162689208984 599.888214111328 595.215087890625 622.866638183594 605.89208984375 570.305206298828 537.980773925781 559.800415039062 598.502807617188 617.747192382812 630.814727783203 656.276763916016 688.514282226562 685.385803222656 667.62255859375 647.135070800781 626.540283203125 600.736694335938 563.512451171875 541.274475097656 519.886138916016 498.866455078125 475.759124755859 482.511474609375 527.292327880859 555.912109375 524.425109863281 485.206176757812 456.386520385742 426.477325439453 377.818481445312 329.480590820312 321.896636962891 320.657257080078 310.565048217773 329.908813476562 369.750946044922 373.462112426758 332.918243408203 351.566131591797 400.235900878906 431.160980224609 462.392364501953 474.405380249023 454.134201049805 431.087738037109 399.573455810547 362.179962158203 317.286743164062 273.901458740234 254.219245910645 222.469390869141 196.448226928711 189.920928955078 190.282356262207 187.349182128906 185.15576171875 182.960266113281 180.858261108398 179.473693847656 178.568664550781 177.866073608398 177.283187866211 176.54126739502 176.337196350098 176.111625671387 175.857650756836 175.814613342285 182.573760986328 213.912475585938 214.300918579102 216.492202758789 239.238502502441 260.889556884766 231.569625854492 211.911605834961 196.177673339844 182.897155761719 160.625534057617 162.988700866699 166.013397216797 177.684707641602 188.063980102539 190.854751586914 178.51123046875 191.95719909668 204.673858642578 222.945381164551 252.083618164062 282.975357055664 305.057983398438 309.13557434082 324.008514404297 331.548553466797 341.909591674805 347.84001159668 367.109985351562 380.543716430664 405.077117919922 428.506896972656 448.00048828125 469.309722900391 494.221099853516 520.442199707031 544.834045410156 549.96826171875 537.211364746094 566.365325927734 599.712768554688 629.706298828125 640.977600097656 667.426239013672 687.295837402344 690.287902832031 660.486328125 640.419769287109 632.226684570312 641.239196777344 612.996643066406 631.642761230469 686.89208984375 703.209899902344 711.807434082031 714.759246826172 731.159362792969 753.027374267578 792.902801513672 814.605346679688 844.611938476562 870.115844726562 902.766326904297 939.135040283203 931.461181640625 918.270812988281 916.39453125 927.121765136719 936.582824707031 979.271606445312
443.492477416992 443.492477416992 443.492477416992 443.492477416992 443.492477416992 443.492477416992 443.492477416992 443.492477416992 443.492477416992 443.492477416992 443.492477416992 443.492477416992 443.492477416992 666.266418457031 643.165405273438 637.608825683594 677.813903808594 711.289306640625 709.978454589844 443.492477416992 443.492477416992 443.492477416992 443.492477416992 443.492477416992 443.492477416992 710.126831054688 721.629943847656 714.998291015625 739.432647705078 714.299743652344 670.776153564453 644.721862792969 662.948822021484 698.07470703125 697.082397460938 711.107116699219 692.30029296875 667.305358886719 633.597991943359 616.833862304688 623.818298339844 641.141418457031 626.299926757812 589.191711425781 567.027557373047 571.132385253906 598.895660400391 630.336059570312 637.850921630859 669.792175292969 687.965026855469 659.777954101562 643.870483398438 604.397583007812 579.303283691406 563.884857177734 535.414520263672 515.312469482422 507.620376586914 504.863983154297 496.803466796875 456.729675292969 473.578750610352 505.58039855957 510.438140869141 481.287094116211 450.387634277344 404.533462524414 362.582183837891 324.316543579102 288.090545654297 292.032852172852 301.374069213867 308.093139648438 327.962524414062 332.00114440918 310.615234375 329.645935058594 379.637939453125 443.404510498047 448.90966796875 462.132934570312 463.562072753906 448.595855712891 414.429641723633 360.808929443359 315.271575927734 281.00764465332 245.944839477539 219.98908996582 202.275856018066 190.975135803223 187.463989257812 185.310150146484 183.818496704102 182.229309082031 180.956161499023 179.540710449219 178.216506958008 177.119094848633 176.365524291992 175.851486206055 175.31950378418 175.154327392578 174.669624328613 174.34098815918 175.281059265137 183.585311889648 189.340400695801 202.697700500488 224.99031829834 247.554779052734 224.869827270508 202.421051025391 193.219802856445 186.999565124512 166.755317687988 159.436096191406 162.975509643555 171.712387084961 177.323440551758 174.412773132324 185.664375305176 190.615837097168 205.190208435059 217.183517456055 233.548812866211 257.103393554688 278.722717285156 302.743606567383 313.538604736328 327.939727783203 336.862594604492 338.673690795898 356.363403320312 385.596130371094 402.724258422852 409.376007080078 421.063354492188 442.815307617188 467.656860351562 478.112808227539 516.675537109375 556.751159667969 563.10595703125 537.075866699219 577.597076416016 611.782409667969 648.326019287109 669.181213378906 670.212524414062 657.700714111328 623.338897705078 591.054138183594 597.174621582031 605.042541503906 604.963470458984 632.878173828125 651.633544921875 664.744812011719 690.511962890625 712.49609375 727.277923583984 736.051849365234 768.3330078125 797.133361816406 825.15478515625 848.668060302734 878.204711914062 900.827209472656 887.520874023438 917.914794921875 947.634185791016 950.956665039062 958.483642578125 971.054870605469
443.492477416992 443.492477416992 443.492477416992 443.492477416992 443.492477416992 443.492477416992 443.492477416992 443.492477416992 443.492477416992 443.492477416992 443.492477416992 443.492477416992 443.492477416992 675.326965332031 663.583618164062 662.080963134766 670.599853515625 702.780822753906 443.492477416992 443.492477416992 443.492477416992 443.492477416992 443.492477416992 443.492477416992 443.492477416992 443.492477416992 443.492477416992 748.956085205078 761.217834472656 714.806335449219 686.412872314453 675.872314453125 694.499267578125 718.495300292969 731.031799316406 722.220520019531 699.070709228516 666.574768066406 646.465667724609 645.626159667969 649.280212402344 646.282165527344 618.771728515625 594.137268066406 588.600677490234 600.926696777344 606.761077880859 624.248260498047 642.128845214844 665.746826171875 631.695648193359 627.87890625 618.260986328125 576.38623046875 541.016143798828 520.133239746094 507.152374267578 491.288299560547 480.781295776367 486.317626953125 482.905975341797 457.988983154297 429.201202392578 445.731689453125 476.76904296875 475.716033935547 454.14518737793 422.688629150391 379.94563293457 322.815093994141 276.95751953125 263.152359008789 279.153991699219 282.1650390625 295.647720336914 288.855285644531 293.687408447266 315.754669189453 357.408020019531 409.210494995117 387.23779296875 416.673492431641 415.769912719727 420.993179321289 416.560241699219 361.589752197266 316.526153564453 296.340240478516 255.342315673828 236.447731018066 213.95849609375 220.989860534668 209.454116821289 192.513458251953 183.45824432373 182.248512268066 181.009124755859 179.536331176758 177.950759887695 176.820381164551 175.942222595215 175.28825378418 174.559265136719 173.978225708008 173.565315246582 173.385589599609 173.71174621582 175.686111450195 180.160400390625 196.683990478516 205.8154296875 213.619567871094 217.687545776367 203.043670654297 194.287704467773 193.516395568848 175.399940490723 162.866752624512 158.181747436523 165.945236206055 171.862854003906 177.002349853516 179.996673583984 185.207504272461 187.331016540527 196.279144287109 216.035522460938 246.521194458008 270.019454956055 289.383026123047 300.070953369141 305.790771484375 311.726974487305 329.167205810547 354.647796630859 372.286026000977 394.831115722656 401.667388916016 405.929595947266 429.388748168945 456.572784423828 467.590881347656 491.63720703125 551.584350585938 575.114501953125 563.464324951172 559.978454589844 612.578277587891 642.463714599609 650.452880859375 645.230072021484 624.576202392578 582.841552734375 619.901092529297 649.283020019531 658.187530517578 649.111999511719 636.107177734375 659.868713378906 686.262268066406 707.385620117188 724.901031494141 744.774261474609 751.023101806641 764.659545898438 789.335083007812 820.760803222656 836.880798339844 857.489379882812 866.679870605469 901.904479980469 952.776214599609 968.947265625 971.397644042969 980.72021484375 993.197570800781
443.492477416992 443.492477416992 443.492477416992 443.492477416992 443.492477416992 443.492477416992 443.492477416992 443.492477416992 443.492477416992 443.492477416992 443.492477416992 443.492477416992 443.492477416992 443.492477416992 670.682067871094 669.834533691406 443.492477416992 443.492477416992 443.492477416992 443.492477416992 443.492477416992 443.492477416992 443.492477416992 443.492477416992 443.492477416992 443.492477416992 443.492477416992 443.492477416992 766.348205566406 739.800964355469 720.975555419922 728.239685058594 724.23486328125 743.107788085938 756.712738037109 724.8408203125 704.301818847656 674.875427246094 664.556091308594 679.306030273438 660.147338867188 646.402770996094 628.052398681641 612.699310302734 616.0830078125 636.998046875 630.594573974609 645.695861816406 656.891418457031 644.000610351562 614.119201660156 613.594116210938 601.854248046875 561.530822753906 532.236755371094 509.630584716797 491.224029541016 475.709930419922 467.578018188477 468.968292236328 464.357482910156 442.118743896484 419.892730712891 400.860565185547 432.752624511719 430.287216186523 408.258239746094 392.944458007812 360.607574462891 319.04736328125 282.527648925781 247.533111572266 248.794090270996 250.212516784668 249.397811889648 268.568969726562 253.880966186523 287.447265625 329.845001220703 366.580276489258 329.978179931641 351.827178955078 355.541229248047 394.721832275391 420.868896484375 377.53662109375 335.993957519531 322.389022827148 299.094085693359 276.120788574219 237.738311767578 253.82487487793 242.571640014648 220.809364318848 183.125015258789 181.806945800781 180.692604064941 179.356628417969 177.827438354492 176.807762145996 175.922439575195 174.854431152344 174.042251586914 173.434188842773 172.64421081543 172.249328613281 172.492309570312 172.940414428711 176.428817749023 180.763793945312 189.399627685547 198.308807373047 211.517196655273 209.005676269531 195.462738037109 191.972434997559 186.232528686523 162.793670654297 160.864501953125 163.519104003906 166.390518188477 176.073707580566 176.55859375 179.639038085938 188.394027709961 205.840621948242 227.365020751953 246.878273010254 257.093933105469 281.177307128906 292.456619262695 289.478500366211 300.729370117188 324.518539428711 353.759460449219 364.118316650391 384.241424560547 394.834686279297 402.810607910156 413.741683959961 432.922546386719 464.434387207031 486.590972900391 521.198974609375 565.0595703125 581.230743408203 547.302459716797 591.389038085938 623.861389160156 625.781707763672 619.449096679688 592.216003417969 578.204711914062 632.782409667969 668.490783691406 686.686828613281 688.43017578125 669.221527099609 675.159362792969 700.990417480469 718.230804443359 735.475311279297 747.581665039062 755.983764648438 785.335388183594 810.378601074219 847.706695556641 846.089599609375 854.108520507812 887.515075683594 937.471252441406 973.524719238281 987.997131347656 985.894348144531 994.58203125 1022.72991943359
443.492477416992 443.492477416992 443.492477416992 443.492477416992 443.492477416992 443.492477416992 443.492477416992 443.492477416992 443.492477416992 443.492477416992 443.492477416992 443.492477416992 443.492477416992 443.492477416992 443.492477416992 443.492477416992 443.492477416992 443.492477416992 443.492477416992 443.492477416992 443.492477416992 443.492477416992 443.492477416992 443.492477416992 443.492477416992 443.492477416992 443.492477416992 443.492477416992 443.492477416992 736.673950195312 736.793518066406 755.95458984375 757.689819335938 770.981567382812 764.304351806641 743.756469726562 727.733459472656 696.608581542969 684.443176269531 687.765502929688 683.059692382812 679.968444824219 664.465576171875 637.486633300781 641.38232421875 657.22705078125 660.561676025391 657.323852539062 640.813323974609 632.297637939453 610.473205566406 599.958251953125 579.596649169922 541.982788085938 515.019165039062 509.936981201172 492.660354614258 484.012023925781 492.552200317383 478.681274414062 440.958801269531 425.092926025391 402.467681884766 382.385620117188 389.424880981445 391.787384033203 362.626434326172 352.056747436523 356.206436157227 322.235412597656 286.246994018555 247.974548339844 223.130813598633 218.553802490234 228.902648925781 232.390258789062 221.022285461426 266.362777709961 309.650848388672 315.386047363281 278.745086669922 306.766510009766 310.445495605469 361.009628295898 389.469436645508 365.798065185547 367.963775634766 355.460418701172 330.033325195312 285.453765869141 252.769348144531 257.74153137207 247.655700683594 205.391464233398 181.721534729004 180.958457946777 180.017547607422 179.015335083008 177.909713745117 176.776496887207 175.779968261719 174.791069030762 173.867095947266 173.315048217773 172.474502563477 171.767936706543 172.010345458984 171.875762939453 171.953430175781 175.829727172852 180.17692565918 192.033920288086 200.085998535156 193.535491943359 187.092864990234 187.858955383301 184.174713134766 174.872909545898 162.080459594727 159.539413452148 165.56241607666 169.303123474121 172.787300109863 175.325134277344 184.356330871582 205.230346679688 221.485137939453 241.873016357422 258.575988769531 279.957580566406 282.905548095703 281.471801757812 299.220199584961 323.504119873047 341.101501464844 364.440856933594 385.181365966797 395.479232788086 411.559020996094 418.376983642578 431.957336425781 465.692260742188 505.643157958984 525.725402832031 554.926574707031 586.132110595703 544.956237792969 566.193542480469 588.375244140625 592.970031738281 573.88720703125 563.491851806641 572.963989257812 622.379943847656 666.153198242188 697.588134765625 716.965942382812 697.298156738281 688.746826171875 706.006774902344 721.418182373047 740.104278564453 760.392150878906 766.138732910156 793.2353515625 831.011749267578 876.468811035156 879.931121826172 874.985992431641 894.734161376953 923.384033203125 957.283569335938 984.066284179688 1004.77590942383 1003.17742919922 1019.13323974609
443.492477416992 443.492477416992 443.492477416992 443.492477416992 443.492477416992 443.492477416992 443.492477416992 443.492477416992 443.492477416992 443.492477416992 443.492477416992 443.492477416992 443.492477416992 443.492477416992 443.492477416992 443.492477416992 443.492477416992 443.492477416992 443.492477416992 443.492477416992 443.492477416992 443.492477416992 443.492477416992 443.492477416992 443.492477416992 443.492477416992 443.492477416992 443.492477416992 443.492477416992 443.492477416992 443.492477416992 443.492477416992 443.492477416992 781.364013671875 777.308807373047 769.350891113281 748.40966796875 712.24267578125 698.865509033203 690.921936035156 705.901947021484 709.415832519531 687.417846679688 664.506011962891 667.835754394531 668.261871337891 655.610961914062 638.975952148438 616.71533203125 597.085845947266 589.801635742188 586.158569335938 564.124237060547 534.176574707031 503.280975341797 484.563949584961 491.817230224609 494.377182006836 493.954605102539 474.833145141602 440.422744750977 405.721893310547 377.347381591797 363.884262084961 354.53092956543 362.147048950195 335.704208374023 318.371520996094 339.182266235352 320.617645263672 292.122528076172 260.373474121094 225.295043945312 209.094711303711 213.992233276367 212.466018676758 216.894470214844 247.773178100586 261.026321411133 273.878723144531 240.088043212891 265.361846923828 279.787475585938 316.46012878418 350.325134277344 317.198348999023 321.11051940918 320.238296508789 313.898895263672 284.601501464844 236.170181274414 220.971054077148 214.584197998047 193.155822753906 181.543884277344 180.696533203125 180.113952636719 178.879203796387 177.996383666992 176.970748901367 175.824111938477 174.865791320801 173.85523223877 173.046127319336 172.361862182617 171.607933044434 171.424781799316 170.888748168945 170.666458129883 171.555465698242 174.580444335938 181.249481201172 188.291175842285 182.504409790039 182.454208374023 182.071975708008 180.569244384766 180.826751708984 161.978912353516 159.937004089355 162.565063476562 167.769897460938 170.482955932617 173.134155273438 179.157936096191 201.088478088379 215.719970703125 230.415794372559 247.209274291992 255.489105224609 256.984375 259.190017700195 287.254837036133 315.591674804688 331.834228515625 348.369049072266 367.89045715332 374.332702636719 392.507232666016 424.87873840332 451.842803955078 481.171432495117 518.554901123047 525.139923095703 540.633819580078 583.389404296875 585.710632324219 557.200897216797 560.984558105469 564.135437011719 586.873962402344 604.31640625 580.63232421875 614.571044921875 674.557495117188 699.468292236328 727.463500976562 729.415954589844 712.651428222656 707.641815185547 720.4375 737.111145019531 764.498840332031 784.553405761719 809.344787597656 839.333557128906 868.336547851562 894.242065429688 893.419677734375 921.396789550781 910.376281738281 918.69140625 940.083679199219 960.436340332031 961.744384765625 981.496520996094
443.492477416992 443.492477416992 443.492477416992 443.492477416992 443.492477416992 443.492477416992 443.492477416992 443.492477416992 443.492477416992 443.492477416992 443.492477416992 443.492477416992 443.492477416992 443.492477416992 443.492477416992 443.492477416992 443.492477416992 443.492477416992 443.492477416992 443.492477416992 443.492477416992 443.492477416992 443.492477416992 443.492477416992 443.492477416992 443.492477416992 443.492477416992 443.492477416992 443.492477416992 443.492477416992 443.492477416992 443.492477416992 443.492477416992 443.492477416992 790.454925537109 782.137145996094 767.569274902344 733.694366455078 721.101318359375 741.078979492188 754.191589355469 746.772033691406 718.357482910156 698.324401855469 677.838226318359 650.842651367188 627.293395996094 611.008331298828 593.636962890625 572.437316894531 560.490173339844 578.819000244141 555.465148925781 532.766723632812 496.94873046875 471.376907348633 465.57389831543 485.465866088867 477.759094238281 451.021545410156 426.070816040039 397.381332397461 360.62141418457 343.7236328125 336.995941162109 336.515121459961 317.974868774414 298.408416748047 316.0341796875 303.389465332031 278.959716796875 263.976654052734 238.949157714844 211.666702270508 205.687088012695 207.194458007812 209.61865234375 215.291259765625 229.602157592773 236.577880859375 214.261978149414 224.955558776855 257.486938476562 277.905822753906 313.008087158203 279.551712036133 268.520202636719 277.089431762695 275.695007324219 259.795135498047 219.192581176758 197.197967529297 187.642921447754 182.722671508789 181.832412719727 181.365676879883 182.679443359375 178.770263671875 177.863571166992 176.973594665527 175.716011047363 174.676063537598 173.620658874512 172.630813598633 171.90380859375 171.614311218262 170.898254394531 170.215393066406 169.752593994141 169.691665649414 171.47673034668 174.598541259766 175.125968933105 177.217681884766 180.009582519531 181.121643066406 178.856414794922 179.283752441406 166.108322143555 160.829116821289 161.776443481445 162.779586791992 167.20386505127 170.782752990723 175.888954162598 191.948120117188 206.148887634277 221.899627685547 235.204139709473 240.740295410156 232.551559448242 242.224113464355 278.382507324219 304.267242431641 315.82421875 329.777923583984 345.15641784668 348.623077392578 364.847778320312 414.361175537109 454.485275268555 482.534637451172 521.695709228516 531.942565917969 537.420104980469 575.518615722656 596.294616699219 615.616180419922 619.001403808594 631.110168457031 652.277099609375 633.743103027344 604.063049316406 596.203918457031 657.009002685547 706.999420166016 727.991088867188 739.87158203125 746.574859619141 746.696746826172 744.130859375 775.209350585938 777.043823242188 808.596008300781 833.7763671875 858.218444824219 880.528015136719 912.358276367188 911.065185546875 905.968505859375 924.102691650391 935.489379882812 935.647338867188 937.907836914062 943.231506347656 948.533843994141
443.492477416992 443.492477416992 443.492477416992 443.492477416992 443.492477416992 443.492477416992 443.492477416992 443.492477416992 443.492477416992 443.492477416992 443.492477416992 443.492477416992 443.492477416992 443.492477416992 443.492477416992 443.492477416992 443.492477416992 443.492477416992 443.492477416992 443.492477416992 443.492477416992 443.492477416992 443.492477416992 443.492477416992 443.492477416992 443.492477416992 443.492477416992 443.492477416992 443.492477416992 443.492477416992 443.492477416992 443.492477416992 443.492477416992 443.492477416992 443.492477416992 443.492477416992 788.43408203125 764.81298828125 783.866058349609 811.803588867188 797.504241943359 786.907287597656 764.293975830078 746.716613769531 714.963928222656 665.332427978516 620.925445556641 587.395111083984 562.206359863281 548.286163330078 531.288238525391 534.697479248047 524.421142578125 510.348358154297 490.832672119141 466.818786621094 438.717559814453 448.711669921875 434.952514648438 427.936187744141 408.289916992188 382.076736450195 352.221298217773 328.996917724609 312.461212158203 313.760452270508 288.911804199219 283.699340820312 295.291656494141 280.095520019531 252.218460083008 242.872131347656 252.431205749512 232.29133605957 206.412567138672 204.238899230957 206.270439147949 205.434539794922 205.951873779297 206.651824951172 204.259140014648 213.035018920898 223.897506713867 246.699829101562 270.49560546875 271.227432250977 226.879676818848 238.119140625 219.862518310547 223.002883911133 201.447944641113 185.065902709961 183.795455932617 182.87181854248 181.923080444336 181.136337280273 180.121223449707 179.260696411133 178.172256469727 176.778800964355 175.711128234863 174.664039611816 173.626541137695 172.513313293457 171.691093444824 171.079162597656 170.407836914062 169.721588134766 169.17204284668 168.781265258789 169.038078308105 172.858016967773 173.677627563477 175.173950195312 178.762451171875 180.183120727539 179.606185913086 179.013122558594 177.750350952148 165.93172454834 158.361968994141 161.543579101562 163.204597473145 168.402908325195 171.966674804688 176.12068939209 190.953414916992 205.282859802246 214.739822387695 214.112091064453 209.34928894043 237.362503051758 267.9609375 288.412048339844 296.371704101562 303.620635986328 312.872619628906 318.714874267578 341.702331542969 382.749908447266 426.862899780273 470.514068603516 518.719940185547 534.992065429688 533.163696289062 564.180603027344 589.640899658203 610.611083984375 646.904510498047 663.935241699219 672.845703125 656.981689453125 634.997009277344 606.376495361328 627.7099609375 675.301940917969 714.862182617188 743.237365722656 760.998291015625 772.679046630859 778.313232421875 793.453796386719 790.177551269531 812.66162109375 841.403381347656 871.964080810547 894.908599853516 901.575592041016 923.388977050781 922.788543701172 921.860382080078 930.221618652344 951.202880859375 968.146453857422 963.879241943359 968.523223876953
443.492477416992 443.492477416992 443.492477416992 443.492477416992 443.492477416992 443.492477416992 443.492477416992 443.492477416992 443.492477416992 443.492477416992 443.492477416992 443.492477416992 443.492477416992 443.492477416992 443.492477416992 443.492477416992 443.492477416992 443.492477416992 443.492477416992 443.492477416992 443.492477416992 443.492477416992 443.492477416992 443.492477416992 443.492477416992 443.492477416992 443.492477416992 443.492477416992 443.492477416992 443.492477416992 443.492477416992 443.492477416992 443.492477416992 443.492477416992 443.492477416992 443.492477416992 797.751586914062 828.747497558594 832.108032226562 816.995330810547 793.510864257812 796.035705566406 779.878814697266 767.561096191406 745.98974609375 694.416961669922 630.231262207031 584.307434082031 540.621185302734 516.425445556641 507.185928344727 504.321655273438 506.251434326172 478.010345458984 455.012069702148 449.737594604492 428.018325805664 410.105560302734 394.859802246094 400.582427978516 386.833236694336 365.055252075195 342.416809082031 301.046691894531 282.950927734375 298.307647705078 288.703399658203 263.47526550293 271.157302856445 258.78955078125 234.930770874023 222.305244445801 237.200744628906 253.106246948242 236.257148742676 202.558456420898 202.019340515137 200.896949768066 199.578048706055 198.908462524414 200.094360351562 199.25065612793 205.104843139648 212.566146850586 228.519332885742 247.507133483887 208.197326660156 210.819343566895 194.01008605957 187.566215515137 185.767852783203 184.654029846191 183.659774780273 182.960739135742 182.150253295898 181.452659606934 180.434494018555 179.151123046875 178.083992004395 176.664527893066 175.628936767578 174.439819335938 173.640594482422 172.829040527344 171.808456420898 170.844650268555 170.052520751953 169.226486206055 168.725311279297 168.31755065918 167.817337036133 169.065704345703 171.160171508789 173.334136962891 175.430313110352 176.061904907227 179.390075683594 180.228912353516 177.603240966797 175.494430541992 169.110244750977 158.513603210449 161.349517822266 162.961364746094 169.930648803711 171.423522949219 177.542556762695 185.731079101562 188.331832885742 186.241653442383 200.334838867188 219.551254272461 245.132049560547 260.309631347656 268.123275756836 271.284637451172 278.668914794922 301.500061035156 326.540084838867 353.823333740234 393.468078613281 447.537490844727 489.899139404297 532.312316894531 520.288482666016 540.881469726562 575.194274902344 598.799591064453 637.576782226562 660.15673828125 670.629302978516 676.882995605469 654.037780761719 631.419677734375 613.211486816406 638.802490234375 692.851501464844 727.817596435547 760.85693359375 784.845184326172 793.891418457031 805.983337402344 806.122741699219 817.736053466797 835.921478271484 868.591674804688 894.001037597656 898.94580078125 918.620422363281 931.518310546875 939.150024414062 944.752655029297 947.939575195312 964.514251708984 972.886322021484 998.146118164062
443.492477416992 443.492477416992 443.492477416992 443.492477416992 443.492477416992 443.492477416992 443.492477416992 443.492477416992 443.492477416992 443.492477416992 443.492477416992 443.492477416992 443.492477416992 443.492477416992 443.492477416992 443.492477416992 443.492477416992 443.492477416992 443.492477416992 443.492477416992 443.492477416992 443.492477416992 443.492477416992 443.492477416992 443.492477416992 443.492477416992 443.492477416992 443.492477416992 443.492477416992 443.492477416992 443.492477416992 443.492477416992 443.492477416992 443.492477416992 443.492477416992 443.492477416992 842.019714355469 838.492370605469 821.662261962891 788.041320800781 774.836242675781 788.285583496094 771.918548583984 753.619689941406 734.27294921875 699.127319335938 638.384735107422 577.82080078125 534.822174072266 495.664657592773 477.740112304688 462.099700927734 472.836578369141 459.996444702148 430.23161315918 412.172760009766 408.423767089844 391.547637939453 376.335205078125 370.91716003418 354.281402587891 335.057373046875 308.525817871094 282.181884765625 257.097183227539 263.191162109375 272.751815795898 248.323371887207 245.168685913086 233.448226928711 221.867637634277 213.028106689453 225.202713012695 219.170028686523 214.123565673828 200.881492614746 200.453018188477 198.727233886719 196.532135009766 195.568801879883 195.969482421875 194.791839599609 195.836547851562 196.929206848145 198.281890869141 202.721649169922 194.515319824219 189.777862548828 187.625648498535 186.559753417969 185.651763916016 184.685180664062 183.614685058594 182.960754394531 182.496025085449 181.850006103516 180.989074707031 179.904075622559 178.239280700684 176.754806518555 175.177749633789 174.513946533203 173.496864318848 172.509750366211 171.638320922852 170.729431152344 169.902641296387 169.088485717773 168.390747070312 167.942283630371 167.358474731445 167.113037109375 170.564559936523 172.055709838867 180.588775634766 184.263732910156 178.258644104004 181.10969543457 182.82926940918 177.527214050293 178.340110778809 179.152297973633 158.716415405273 161.343910217285 162.554306030273 169.411834716797 169.194229125977 182.452690124512 186.068313598633 183.482284545898 191.022964477539 208.580001831055 224.744522094727 239.321327209473 237.327575683594 229.618431091309 244.818206787109 281.570861816406 307.289367675781 331.197113037109 371.588638305664 421.424285888672 459.522674560547 498.659301757812 522.208160400391 519.431091308594 537.178009033203 568.326232910156 591.883544921875 626.419097900391 658.656280517578 673.670928955078 670.503723144531 666.381774902344 661.148773193359 626.707885742188 658.435455322266 704.157806396484 734.128692626953 766.833984375 797.717956542969 815.04638671875 822.123138427734 841.702941894531 840.851715087891 862.012725830078 887.438781738281 904.96533203125 918.670318603516 934.599426269531 945.189117431641 949.442779541016 957.7880859375 976.589019775391 981.431335449219 992.517395019531
443.492477416992 443.492477416992 443.492477416992 443.492477416992 443.492477416992 443.492477416992 443.492477416992 443.492477416992 443.492477416992 443.492477416992 443.492477416992 443.492477416992 443.492477416992 443.492477416992 443.492477416992 443.492477416992 443.492477416992 443.492477416992 443.492477416992 443.492477416992 443.492477416992 443.492477416992 443.492477416992 443.492477416992 443.492477416992 443.492477416992 443.492477416992 443.492477416992 443.492477416992 443.492477416992 443.492477416992 443.492477416992 443.492477416992 443.492477416992 443.492477416992 443.492477416992 830.479187011719 820.955810546875 808.073547363281 774.7255859375 752.844299316406 759.11767578125 751.320068359375 717.743713378906 709.821838378906 680.865478515625 632.029205322266 573.091430664062 534.928680419922 507.654083251953 484.062683105469 441.322875976562 429.144882202148 440.300796508789 424.431900024414 396.833831787109 376.405532836914 362.046661376953 354.546646118164 344.2998046875 336.038436889648 312.123321533203 289.35107421875 275.873291015625 251.017303466797 233.835174560547 238.239166259766 226.860229492188 220.493591308594 221.988723754883 212.256484985352 208.390319824219 212.277885437012 207.160713195801 204.439277648926 199.725006103516 198.493225097656 197.291732788086 195.506484985352 194.103897094727 192.741851806641 191.68286895752 191.236618041992 190.505561828613 188.71614074707 187.385597229004 187.69401550293 187.637046813965 187.033065795898 186.345802307129 185.637069702148 184.689926147461 183.946746826172 183.484848022461 182.579223632812 182.103454589844 182.095016479492 181.156829833984 179.250015258789 178.492660522461 177.465240478516 174.59294128418 173.279174804688 172.127151489258 171.434448242188 170.637748718262 169.407928466797 168.927536010742 168.14966583252 167.581176757812 167.087127685547 166.242416381836 167.374893188477 170.653579711914 192.068504333496 197.692726135254 186.844535827637 192.413604736328 190.806594848633 183.164482116699 178.789527893066 177.018402099609 165.852355957031 159.284866333008 161.245681762695 161.908172607422 168.314613342285 170.559677124023 174.47225189209 187.86083984375 184.801528930664 187.959281921387 195.709518432617 219.313369750977 206.551467895508 215.311492919922 264.289184570312 298.507308959961 316.789337158203 336.353668212891 360.778991699219 390.672286987305 432.973342895508 467.540344238281 500.484191894531 485.980407714844 500.625274658203 522.328735351562 554.147857666016 597.608093261719 634.256195068359 667.870788574219 683.475524902344 687.922119140625 694.286010742188 660.705444335938 631.778594970703 665.112670898438 713.836181640625 750.470581054688 788.44482421875 813.111022949219 835.241302490234 844.981292724609 848.14990234375 863.258758544922 878.128356933594 890.660705566406 910.39794921875 932.425750732422 950.695434570312 956.945922851562 958.64453125 972.191284179688 998.856079101562 1002.96838378906
443.492477416992 443.492477416992 443.492477416992 443.492477416992 443.492477416992 443.492477416992 443.492477416992 443.492477416992 443.492477416992 443.492477416992 443.492477416992 443.492477416992 443.492477416992 443.492477416992 443.492477416992 443.492477416992 443.492477416992 443.492477416992 443.492477416992 443.492477416992 443.492477416992 443.492477416992 443.492477416992 443.492477416992 443.492477416992 443.492477416992 443.492477416992 443.492477416992 443.492477416992 443.492477416992 443.492477416992 443.492477416992 443.492477416992 443.492477416992 443.492477416992 443.492477416992 832.112487792969 826.369171142578 799.589019775391 763.237182617188 720.483947753906 734.155456542969 741.878662109375 700.726806640625 677.026123046875 654.636749267578 602.401428222656 555.362060546875 510.777130126953 501.05078125 473.827575683594 436.573318481445 404.236053466797 410.858139038086 404.373001098633 374.164321899414 346.857055664062 339.618316650391 336.731964111328 314.192504882812 314.449295043945 301.528350830078 276.241119384766 257.022003173828 237.903564453125 224.185180664062 221.177597045898 217.586502075195 213.960464477539 209.976119995117 207.206695556641 204.707229614258 203.085594177246 201.751235961914 200.111541748047 200.658508300781 197.618286132812 196.575622558594 195.656227111816 194.35506439209 192.880661010742 192.210083007812 192.37223815918 191.269638061523 190.139404296875 188.835433959961 188.09977722168 187.630317687988 186.788162231445 186.229141235352 185.51025390625 184.87841796875 184.240341186523 183.597473144531 182.996910095215 183.773056030273 184.030456542969 208.271362304688 199.109222412109 186.423675537109 190.853790283203 177.646926879883 173.164932250977 171.770889282227 170.754058837891 169.809188842773 169.22868347168 168.513458251953 167.932754516602 167.209884643555 166.766174316406 165.891784667969 165.970947265625 170.84171295166 184.701110839844 206.427574157715 212.614608764648 218.080375671387 209.534858703613 196.513458251953 182.809417724609 172.594024658203 164.451271057129 161.668510437012 160.907653808594 160.573089599609 161.33829498291 165.683822631836 165.927429199219 167.323654174805 174.257705688477 168.88720703125 170.441711425781 183.859161376953 200.653396606445 226.69327545166 264.352600097656 287.254943847656 312.2783203125 329.267791748047 342.121551513672 370.468933105469 402.925689697266 439.58544921875 464.673614501953 457.051574707031 454.039855957031 494.696487426758 536.924896240234 575.288452148438 610.893920898438 646.224975585938 682.156555175781 685.828979492188 695.815063476562 688.434661865234 658.123992919922 648.898986816406 703.024291992188 744.611938476562 777.108703613281 797.636291503906 810.442810058594 829.651428222656 849.659484863281 859.663757324219 872.892761230469 895.230041503906 906.505645751953 924.710327148438 942.856994628906 958.803955078125 965.782653808594 975.186279296875 993.116241455078 1013.421875
443.492477416992 443.492477416992 443.492477416992 443.492477416992 443.492477416992 443.492477416992 443.492477416992 443.492477416992 443.492477416992 443.492477416992 443.492477416992 443.492477416992 443.492477416992 443.492477416992 443.492477416992 443.492477416992 443.492477416992 443.492477416992 443.492477416992 443.492477416992 443.492477416992 443.492477416992 443.492477416992 443.492477416992 443.492477416992 443.492477416992 443.492477416992 443.492477416992 443.492477416992 443.492477416992 443.492477416992 443.492477416992 443.492477416992 443.492477416992 443.492477416992 443.492477416992 443.492477416992 802.888061523438 777.4619140625 744.032348632812 695.314849853516 687.659210205078 710.655090332031 674.621948242188 635.539093017578 595.407806396484 562.199096679688 517.339904785156 493.914840698242 481.099853515625 448.759613037109 417.068298339844 390.681762695312 383.8369140625 373.718460083008 363.876052856445 347.885726928711 331.871887207031 302.404571533203 286.324203491211 278.130126953125 270.6953125 276.207992553711 250.911697387695 238.906578063965 231.405914306641 218.288375854492 217.533630371094 216.006813049316 207.767456054688 206.39379119873 204.99666595459 202.892852783203 201.969635009766 200.479309082031 199.076568603516 198.292251586914 197.41455078125 196.29248046875 194.965492248535 193.709457397461 193.473838806152 194.373924255371 192.269317626953 190.795257568359 189.234848022461 187.927474975586 187.499725341797 187.090515136719 186.556182861328 185.938812255859 198.279136657715 196.572830200195 184.408920288086 184.490455627441 185.196807861328 185.618583679199 205.819686889648 234.732482910156 199.364074707031 202.155029296875 202.278564453125 184.5869140625 176.733306884766 171.666580200195 169.473350524902 168.729804992676 168.205947875977 167.676383972168 166.738571166992 166.090118408203 165.417205810547 166.553756713867 171.899551391602 185.917793273926 206.790878295898 222.68522644043 234.09268951416 220.569229125977 197.530166625977 184.571212768555 182.282920837402 165.774574279785 161.506362915039 160.734802246094 160.482414245605 160.607582092285 161.440063476562 162.697494506836 170.386810302734 192.556091308594 200.213348388672 191.054824829102 172.862609863281 187.357414245605 215.274604797363 231.120651245117 254.625991821289 304.654815673828 330.376480102539 338.532257080078 350.007904052734 384.111389160156 406.409118652344 429.575561523438 410.163009643555 451.909408569336 485.290924072266 523.22021484375 554.529815673828 584.766479492188 619.081359863281 661.399139404297 675.890502929688 688.078765869141 697.141479492188 677.941040039062 650.936706542969 706.692321777344 735.713531494141 760.866180419922 772.272308349609 783.894470214844 812.626403808594 823.085571289062 847.174011230469 871.386169433594 887.226043701172 896.414306640625 916.001281738281 937.270324707031 949.346618652344 952.957397460938 962.918304443359 985.301727294922 997.397888183594
443.492477416992 443.492477416992 443.492477416992 443.492477416992 443.492477416992 443.492477416992 443.492477416992 443.492477416992 443.492477416992 443.492477416992 443.492477416992 443.492477416992 443.492477416992 443.492477416992 443.492477416992 443.492477416992 443.492477416992 443.492477416992 443.492477416992 443.492477416992 443.492477416992 443.492477416992 443.492477416992 443.492477416992 443.492477416992 443.492477416992 443.492477416992 443.492477416992 443.492477416992 443.492477416992 443.492477416992 443.492477416992 443.492477416992 443.492477416992 443.492477416992 443.492477416992 443.492477416992 787.35986328125 751.067138671875 723.567565917969 694.988494873047 656.431060791016 658.159545898438 638.992095947266 612.863952636719 568.331024169922 530.640258789062 500.004547119141 473.225402832031 464.733917236328 442.422180175781 425.268005371094 410.150756835938 398.970108032227 384.522552490234 374.911315917969 363.724060058594 337.181457519531 310.331832885742 303.926483154297 287.808135986328 274.959289550781 270.421508789062 269.66748046875 260.475280761719 245.063552856445 254.6640625 235.262840270996 225.634826660156 230.643966674805 221.064056396484 216.427505493164 214.043533325195 206.605102539062 201.712310791016 199.738510131836 199.560249328613 200.573280334473 209.940162658691 210.161575317383 194.712738037109 194.493858337402 197.456558227539 217.829055786133 211.53784942627 219.723052978516 190.957290649414 188.538215637207 191.106323242188 207.701889038086 210.513397216797 214.755996704102 230.38037109375 210.430030822754 187.239120483398 186.950096130371 187.580978393555 207.276275634766 260.187042236328 243.477172851562 208.667037963867 240.479919433594 221.970924377441 205.265991210938 187.360122680664 174.829292297363 168.884048461914 167.669082641602 166.953903198242 166.331451416016 165.355010986328 164.937683105469 164.699630737305 172.009765625 183.865844726562 199.603149414062 218.976699829102 236.968910217285 229.14860534668 210.145469665527 203.90064239502 189.277069091797 167.254989624023 161.140846252441 161.108337402344 158.42163848877 159.39298248291 161.361190795898 162.200485229492 168.288162231445 187.892608642578 213.008316040039 207.388412475586 188.902137756348 175.981262207031 195.897888183594 218.319854736328 245.996841430664 283.476760864258 311.038360595703 326.949066162109 338.038772583008 365.651092529297 370.771575927734 392.006912231445 381.096130371094 421.972290039062 462.332611083984 501.955841064453 527.08056640625 556.961456298828 599.562622070312 620.031585693359 667.041809082031 673.417907714844 692.397399902344 694.019714355469 657.059692382812 683.461791992188 710.18359375 725.531768798828 740.580505371094 757.932434082031 771.738952636719 797.260070800781 820.508483886719 848.252136230469 865.220336914062 889.39111328125 911.215148925781 925.341796875 929.903198242188 938.028411865234 941.582672119141 958.599731445312 962.458679199219
443.492477416992 443.492477416992 443.492477416992 443.492477416992 443.492477416992 443.492477416992 443.492477416992 443.492477416992 443.492477416992 443.492477416992 443.492477416992 443.492477416992 443.492477416992 443.492477416992 443.492477416992 443.492477416992 443.492477416992 443.492477416992 443.492477416992 443.492477416992 443.492477416992 443.492477416992 443.492477416992 443.492477416992 443.492477416992 443.492477416992 443.492477416992 443.492477416992 443.492477416992 443.492477416992 443.492477416992 443.492477416992 443.492477416992 443.492477416992 443.492477416992 443.492477416992 443.492477416992 776.824035644531 731.581481933594 698.241088867188 671.488433837891 644.662780761719 616.861053466797 590.7783203125 561.702362060547 545.594055175781 516.589447021484 497.415069580078 487.163543701172 484.366119384766 466.20930480957 443.989730834961 430.824783325195 418.036651611328 402.173095703125 378.761703491211 354.614395141602 337.301635742188 326.876708984375 314.352691650391 299.136276245117 301.778686523438 300.875534057617 288.382354736328 271.643188476562 265.988677978516 286.833679199219 264.436157226562 265.678771972656 262.528167724609 229.914222717285 223.727378845215 218.03547668457 212.688446044922 207.212013244629 202.074974060059 201.331604003906 203.54517364502 210.928367614746 232.199005126953 218.187034606934 213.955673217773 212.032272338867 210.855026245117 256.873977661133 248.973976135254 225.516693115234 197.80443572998 195.107650756836 229.853553771973 267.703475952148 264.920196533203 283.979339599609 248.501510620117 205.024368286133 192.601867675781 189.475662231445 207.582954406738 258.539825439453 271.953491210938 235.777221679688 252.769844055176 259.325439453125 238.305183410645 212.901481628418 185.870788574219 174.436882019043 169.249786376953 168.361129760742 166.927032470703 164.941635131836 164.349105834961 164.424896240234 169.52490234375 187.40894317627 196.004081726074 205.426849365234 218.342361450195 231.840751647949 232.858154296875 212.719711303711 192.245223999023 172.998275756836 160.385231018066 160.795959472656 157.919273376465 160.938751220703 161.100387573242 161.573379516602 163.337898254395 175.334747314453 197.453186035156 217.749969482422 195.881805419922 176.600875854492 177.874809265137 210.312698364258 226.992797851562 243.945465087891 278.208877563477 310.930999755859 330.125762939453 333.409729003906 344.87385559082 355.761169433594 368.15510559082 422.5537109375 466.077728271484 495.225524902344 516.729156494141 529.357055664062 553.683380126953 581.987976074219 630.282989501953 642.972045898438 666.832885742188 689.176391601562 686.961883544922 660.659057617188 667.487335205078 683.179138183594 707.944702148438 721.756958007812 766.292297363281 803.107299804688 830.452270507812 850.106079101562 873.158020019531 884.932556152344 903.295532226562 902.429992675781 904.474945068359 913.552429199219 914.557983398438 926.929809570312 927.621459960938
443.492477416992 443.492477416992 443.492477416992 443.492477416992 443.492477416992 443.492477416992 443.492477416992 443.492477416992 443.492477416992 443.492477416992 443.492477416992 443.492477416992 443.492477416992 443.492477416992 443.492477416992 443.492477416992 443.492477416992 443.492477416992 443.492477416992 443.492477416992 443.492477416992 443.492477416992 443.492477416992 443.492477416992 443.492477416992 443.492477416992 443.492477416992 443.492477416992 443.492477416992 443.492477416992 443.492477416992 443.492477416992 443.492477416992 443.492477416992 443.492477416992 443.492477416992 443.492477416992 747.763366699219 708.981506347656 694.567932128906 674.130981445312 645.672546386719 631.320373535156 608.046936035156 580.588806152344 535.025360107422 518.183319091797 512.484802246094 502.764297485352 491.322052001953 467.939407348633 447.679748535156 435.254531860352 425.247894287109 404.126953125 386.780487060547 377.840682983398 359.735794067383 340.047515869141 320.410736083984 323.735473632812 341.984985351562 330.746124267578 315.483612060547 323.421524047852 305.530212402344 304.480163574219 288.686614990234 274.13134765625 250.584632873535 239.575187683105 231.344131469727 243.895309448242 222.09912109375 212.45677947998 208.78018951416 206.99609375 207.843315124512 209.105239868164 229.414260864258 252.191192626953 247.260299682617 241.185279846191 220.360816955566 237.231109619141 275.90022277832 253.108932495117 224.410537719727 203.312698364258 223.319801330566 279.438079833984 318.596572875977 296.666290283203 251.342185974121 213.592239379883 199.631912231445 192.512268066406 229.108245849609 274.487976074219 296.964935302734 268.149200439453 265.076843261719 275.482604980469 262.152801513672 230.679901123047 203.165405273438 180.457321166992 173.782363891602 171.057281494141 167.860305786133 165.513854980469 163.641822814941 163.205871582031 173.201904296875 187.53987121582 195.473625183105 190.591552734375 201.731719970703 222.685585021973 252.638290405273 228.564025878906 201.19465637207 183.643348693848 160.091491699219 160.594635009766 158.22509765625 160.957778930664 160.779983520508 161.149604797363 161.522666931152 167.82861328125 186.102462768555 213.56128692627 220.741737365723 209.22331237793 180.925216674805 192.888473510742 208.452003479004 230.745452880859 270.445373535156 311.075897216797 329.50048828125 319.94709777832 323.53662109375 330.247116088867 371.42692565918 411.351013183594 451.198822021484 471.400802612305 505.508804321289 518.008483886719 538.09033203125 546.451782226562 576.889282226562 607.012359619141 638.873229980469 674.428497314453 696.137084960938 704.168548583984 701.798461914062 679.964721679688 680.378662109375 690.958862304688 734.908325195312 769.176147460938 798.845672607422 821.767425537109 844.744323730469 860.863555908203 888.962371826172 890.84912109375 873.367553710938 882.932495117188 884.431915283203 888.871307373047 888.789306640625
443.492477416992 443.492477416992 443.492477416992 443.492477416992 443.492477416992 443.492477416992 443.492477416992 443.492477416992 443.492477416992 443.492477416992 443.492477416992 443.492477416992 443.492477416992 443.492477416992 443.492477416992 443.492477416992 443.492477416992 443.492477416992 443.492477416992 443.492477416992 443.492477416992 443.492477416992 443.492477416992 443.492477416992 443.492477416992 443.492477416992 443.492477416992 443.492477416992 443.492477416992 443.492477416992 443.492477416992 443.492477416992 443.492477416992 443.492477416992 443.492477416992 443.492477416992 443.492477416992 755.439514160156 727.793304443359 703.996948242188 681.290222167969 664.842651367188 647.018768310547 610.099243164062 576.354248046875 551.347961425781 527.523681640625 518.339111328125 507.039337158203 496.417541503906 486.657470703125 464.998382568359 443.116546630859 436.126510620117 426.651611328125 414.505722045898 400.183258056641 384.992248535156 371.429260253906 354.503005981445 397.129043579102 410.332275390625 379.868865966797 351.932281494141 358.563568115234 350.895599365234 338.0283203125 306.599502563477 275.074371337891 259.329345703125 248.892623901367 247.295639038086 264.493591308594 240.107681274414 221.489242553711 215.284790039062 209.035842895508 214.810890197754 219.809364318848 229.278701782227 250.142822265625 283.730804443359 268.212142944336 243.703353881836 236.073822021484 283.866409301758 291.108581542969 261.048568725586 242.919784545898 229.025573730469 285.093734741211 330.478515625 292.901596069336 245.301300048828 234.800567626953 224.390724182129 199.924362182617 223.915084838867 267.378112792969 310.207855224609 297.223754882812 281.189208984375 299.725738525391 278.629730224609 245.347160339355 207.612167358398 186.295425415039 178.760345458984 174.296676635742 169.70890045166 167.396507263184 166.936370849609 163.04434967041 166.820503234863 182.218109130859 176.931182861328 179.997985839844 193.852188110352 213.416549682617 246.351852416992 236.410942077637 213.031227111816 188.329582214355 170.221420288086 157.322891235352 159.244293212891 160.866348266602 160.724227905273 160.887351989746 160.960052490234 161.239639282227 176.79126739502 206.703048706055 228.019325256348 233.690704345703 203.422470092773 187.774490356445 201.599220275879 234.156036376953 262.038482666016 303.256164550781 317.521850585938 301.46061706543 291.838882446289 337.35954284668 350.084869384766 384.84765625 425.328582763672 455.101806640625 496.528594970703 515.551513671875 539.719299316406 536.716796875 543.035217285156 584.248168945312 626.657745361328 668.753387451172 692.836578369141 705.434448242188 712.095153808594 718.551635742188 725.958312988281 711.704833984375 695.178558349609 726.119689941406 751.390380859375 786.901062011719 810.16259765625 829.295471191406 862.429046630859 873.279418945312 847.857849121094 850.402801513672 846.716613769531 860.827941894531 862.350952148438
443.492477416992 443.492477416992 443.492477416992 443.492477416992 443.492477416992 443.492477416992 443.492477416992 443.492477416992 443.492477416992 443.492477416992 443.492477416992 443.492477416992 443.492477416992 443.492477416992 443.492477416992 443.492477416992 443.492477416992 443.492477416992 443.492477416992 443.492477416992 443.492477416992 443.492477416992 443.492477416992 443.492477416992 443.492477416992 443.492477416992 443.492477416992 443.492477416992 443.492477416992 443.492477416992 443.492477416992 443.492477416992 443.492477416992 443.492477416992 443.492477416992 443.492477416992 443.492477416992 759.943908691406 745.472991943359 710.617950439453 667.433471679688 651.799713134766 627.615325927734 604.70068359375 574.793670654297 553.819519042969 533.755401611328 524.288543701172 501.864532470703 496.020050048828 489.480072021484 475.767593383789 457.446350097656 463.867599487305 446.939575195312 435.98258972168 425.538665771484 407.757766723633 397.457443237305 384.676116943359 440.717895507812 459.334167480469 435.218948364258 416.774383544922 400.126647949219 373.741760253906 343.817993164062 327.654891967773 296.068222045898 277.844543457031 260.084289550781 278.056457519531 285.747863769531 261.343765258789 235.952262878418 222.343406677246 219.409805297852 233.463768005371 236.1396484375 248.382431030273 252.528434753418 287.923553466797 296.333953857422 267.381896972656 259.761184692383 288.6318359375 303.546661376953 313.380737304688 289.069519042969 259.80387878418 308.067596435547 357.070358276367 324.819458007812 270.569946289062 278.3623046875 264.997589111328 221.041732788086 216.018966674805 271.957244873047 318.551177978516 313.8564453125 297.25830078125 311.337524414062 290.758422851562 255.351470947266 223.601211547852 194.852310180664 184.274833679199 177.462219238281 174.540687561035 178.919647216797 171.429534912109 165.613845825195 163.099227905273 162.298881530762 164.038818359375 173.754302978516 181.904205322266 195.36011505127 221.661270141602 229.551597595215 211.761650085449 205.49479675293 184.168716430664 157.242584228516 160.030807495117 160.447250366211 160.853446960449 160.586563110352 160.717010498047 161.048812866211 171.447166442871 190.435897827148 212.954025268555 215.737731933594 212.161628723145 191.014335632324 204.761024475098 241.5556640625 263.717620849609 289.60693359375 277.074859619141 255.134231567383 293.225708007812 323.502227783203 330.405212402344 368.875701904297 410.405822753906 437.93717956543 457.614471435547 493.577667236328 527.274291992188 526.789794921875 524.577331542969 555.173645019531 604.372497558594 666.320739746094 686.346008300781 696.140991210938 709.253356933594 727.650024414062 737.877380371094 736.752777099609 728.500671386719 719.246917724609 723.823669433594 744.730834960938 788.334350585938 811.054870605469 841.607055664062 835.197631835938 811.683868408203 819.452392578125 829.995300292969 842.503662109375 880.3017578125
443.492477416992 443.492477416992 443.492477416992 443.492477416992 443.492477416992 443.492477416992 443.492477416992 443.492477416992 443.492477416992 443.492477416992 443.492477416992 443.492477416992 443.492477416992 443.492477416992 443.492477416992 443.492477416992 443.492477416992 443.492477416992 443.492477416992 443.492477416992 443.492477416992 443.492477416992 443.492477416992 443.492477416992 443.492477416992 443.492477416992 443.492477416992 443.492477416992 443.492477416992 443.492477416992 443.492477416992 443.492477416992 443.492477416992 443.492477416992 443.492477416992 443.492477416992 443.492477416992 443.492477416992 735.937744140625 715.621978759766 679.051208496094 648.875549316406 630.770690917969 622.657318115234 598.394165039062 575.423645019531 548.406372070312 523.091888427734 503.56867980957 494.977569580078 489.308456420898 500.133758544922 517.435577392578 504.107452392578 482.977920532227 476.737899780273 480.8876953125 462.215179443359 431.099548339844 409.379455566406 443.902893066406 486.957717895508 487.898712158203 469.590789794922 437.758758544922 407.79833984375 373.329498291016 357.353454589844 322.055328369141 311.992828369141 285.49072265625 293.921905517578 321.185470581055 281.838562011719 247.986633300781 231.962615966797 256.923263549805 269.718383789062 269.954605102539 265.318420410156 273.047912597656 288.008529663086 315.309295654297 291.390579223633 275.991455078125 301.101669311523 317.660125732422 322.496063232422 341.294677734375 317.291580200195 333.482727050781 374.841384887695 321.602996826172 304.28938293457 307.77587890625 285.208892822266 253.025283813477 223.181449890137 247.023376464844 297.794830322266 330.751617431641 314.149078369141 325.727447509766 311.487335205078 270.272430419922 227.584136962891 205.200607299805 203.626983642578 183.887664794922 180.883422851562 185.852874755859 177.495674133301 167.819114685059 166.550582885742 161.756378173828 161.324081420898 163.388137817383 176.060340881348 184.007804870605 196.162315368652 198.800399780273 195.13215637207 195.333801269531 183.949584960938 178.998611450195 159.752510070801 160.169944763184 160.462051391602 160.415855407715 160.315521240234 182.444725036621 184.933052062988 195.927352905273 212.452285766602 212.765365600586 212.574188232422 215.431434631348 188.026977539062 231.655075073242 246.120834350586 243.091430664062 237.512023925781 247.885833740234 305.328567504883 307.325561523438 327.292083740234 368.526657104492 400.097122192383 421.469055175781 438.786682128906 484.146240234375 510.10075378418 512.902587890625 507.097427368164 526.47314453125 581.158752441406 630.07177734375 670.873962402344 687.720764160156 699.464477539062 724.145202636719 736.957305908203 748.819152832031 753.619445800781 761.623107910156 774.341461181641 741.528442382812 760.611694335938 780.696685791016 823.196533203125 802.425018310547 808.944610595703 821.224548339844 849.116058349609 861.95947265625 885.246154785156
443.492477416992 443.492477416992 443.492477416992 443.492477416992 443.492477416992 443.492477416992 443.492477416992 443.492477416992 443.492477416992 443.492477416992 443.492477416992 443.492477416992 443.492477416992 443.492477416992 443.492477416992 443.492477416992 443.492477416992 443.492477416992 443.492477416992 443.492477416992 443.492477416992 443.492477416992 443.492477416992 443.492477416992 443.492477416992 443.492477416992 443.492477416992 443.492477416992 443.492477416992 443.492477416992 443.492477416992 443.492477416992 443.492477416992 443.492477416992 443.492477416992 443.492477416992 443.492477416992 443.492477416992 727.527160644531 721.235565185547 696.622802734375 667.017761230469 651.032012939453 635.791625976562 622.934783935547 594.695373535156 567.976654052734 539.052734375 512.447326660156 511.570587158203 510.916320800781 540.169006347656 565.023315429688 531.548400878906 536.548370361328 538.928100585938 546.306945800781 508.477111816406 453.306976318359 429.272308349609 450.433044433594 481.255737304688 511.5341796875 495.393432617188 457.164184570312 428.573440551758 395.475433349609 371.043426513672 337.141906738281 344.655883789062 323.620971679688 294.988250732422 327.922256469727 293.927093505859 259.41064453125 250.55931854248 274.010375976562 306.013076782227 304.017395019531 300.694488525391 297.893035888672 300.531860351562 322.205474853516 317.592071533203 298.882202148438 308.958877563477 310.230407714844 331.921463012695 357.894592285156 375.050521850586 384.638412475586 404.634582519531 348.518981933594 360.918914794922 355.701934814453 333.804809570312 301.459915161133 259.663131713867 255.444198608398 320.846862792969 362.984497070312 346.667602539062 352.597290039062 326.427520751953 281.49853515625 253.463973999023 235.348907470703 243.223098754883 204.076354980469 187.931678771973 184.876251220703 178.570793151855 171.696937561035 168.55078125 162.353713989258 160.948684692383 160.862983703613 169.430084228516 168.535102844238 185.389389038086 169.842185974121 159.667739868164 160.203163146973 160.657577514648 160.81266784668 157.041290283203 159.992614746094 160.007141113281 160.030471801758 180.718544006348 209.716201782227 205.638778686523 215.023406982422 215.952445983887 214.406593322754 214.224670410156 218.075302124023 185.965621948242 209.786590576172 228.600936889648 217.879280090332 233.312606811523 269.983489990234 300.672882080078 294.020080566406 330.049377441406 359.624069213867 384.222412109375 405.931030273438 441.090515136719 479.823471069336 497.856628417969 494.079299926758 489.678405761719 517.874816894531 551.199951171875 587.026672363281 626.596862792969 674.569580078125 688.782104492188 704.5927734375 728.343658447266 747.567749023438 767.203735351562 767.920837402344 774.310821533203 769.50927734375 749.847412109375 759.385986328125 785.272583007812 806.326721191406 840.541625976562 849.844482421875 851.541259765625 877.712341308594 874.963439941406
